346.41	-598.04	447.38	29.75	29.75	29.75
346.41	-601.31	444.45	30	30	30
346.41	-604.58	443.44	32.25	32.25	32.25
346.41	-607.84	446.44	33	33	33
346.41	-611.11	449.5	34.75	34.75	34.75
346.41	-614.38	452.66	35.25	35.25	35.25
346.41	-617.65	455.63	35.25	35.25	35.25
346.41	-620.92	457.96	33.75	33.75	33.75
346.41	-624.18	460.04	32.75	32.75	32.75
346.41	-627.45	462.59	31.75	31.75	31.75
346.41	-630.72	465.56	31.5	31.5	31.5
346.41	-633.99	468.84	31	31	31
346.41	-637.25	472.38	31.25	31.25	31.25
346.41	-640.52	476.1	30.25	30.25	30.25
346.41	-643.79	479.77	29.5	29.5	29.5
346.41	-647.06	482.52	29	29	29
346.41	-653.59	488.5	30	30	30
346.41	-656.86	492.28	30	30	30
346.41	-660.13	495.62	30.75	30.75	30.75
346.41	-663.4	499	29.75	29.75	29.75
346.41	-666.67	499.99	29.25	29.25	29.25
346.41	-673.2	499.97	30.5	30.5	30.5
346.41	-676.47	505.77	30	30	30
346.41	-679.74	512.33	30	30	30
346.41	-686.27	525.36	28.75	28.75	28.75
346.41	-689.54	517.15	28.75	28.75	28.75
346.41	-692.81	508.59	27.75	27.75	27.75
346.41	-696.08	510.4	27.25	27.25	27.25
346.41	-699.35	513.12	26.25	26.25	26.25
346.41	-702.61	513.13	26.5	26.5	26.5
346.41	-705.88	511.79	26.75	26.75	26.75
346.41	-709.15	515.4	27.5	27.5	27.5
346.41	-712.42	520.9	27.75	27.75	27.75
346.41	-715.69	525.3	28.75	28.75	28.75
346.41	-718.95	528.65	29	29	29
346.41	-722.22	530.22	29.75	29.75	29.75
346.41	-725.49	531.04	31	31	31
346.41	-728.76	532.17	31.5	31.5	31.5
346.41	-732.03	533.03	31.25	31.25	31.25
346.41	-735.29	533.64	30.5	30.5	30.5
346.41	-738.56	534.21	30.25	30.25	30.25
346.41	-741.83	534.96	30.75	30.75	30.75
346.41	-745.1	535.08	31.25	31.25	31.25
346.41	-748.37	535.08	31.25	31.25	31.25
346.41	-751.63	535.62	30.25	30.25	30.25
346.41	-754.9	536.28	29	29	29
346.41	-758.17	536.99	29	29	29
346.41	-761.44	537.6	38.75	38.75	38.75
346.41	-764.71	538.13	59	59	59
346.41	-767.97	538.63	82.25	82.25	82.25
346.41	-771.24	539.07	97	97	97
346.41	-774.51	539.3	102.25	102.25	102.25
346.41	-777.78	539.31	103.5	103.5	103.5
346.41	-781.05	539.26	104	104	104
346.41	-784.31	539.19	104.75	104.75	104.75
346.41	-787.58	539.1	105	105	105
346.41	-794.12	538.83	105.25	105.25	105.25
346.41	-797.39	538.65	104.5	104.5	104.5
346.41	-800.65	538.44	105.25	105.25	105.25
346.41	-807.19	538.07	104	104	104
346.41	-810.46	537.93	103.5	103.5	103.5
346.41	-813.73	537.77	104	104	104
346.41	-816.99	537.54	103.5	103.5	103.5
346.41	-820.26	537.23	102.25	102.25	102.25
346.41	-823.53	536.84	102.5	102.5	102.5
346.41	-830.07	535.88	103.75	103.75	103.75
346.41	-833.33	535.43	103.75	103.75	103.75
346.41	-836.6	535.09	104.5	104.5	104.5
349.67	-3.268	290.6	105.5	105.5	105.5
349.67	-6.5359	290.49	105	105	105
349.67	-9.8039	290.24	106	106	106
349.67	-16.34	289.75	105.5	105.5	105.5
349.67	-19.608	289.57	105.5	105.5	105.5
349.67	-22.876	289.34	106	106	106
349.67	-26.144	289.07	105.5	105.5	105.5
349.67	-29.412	288.94	106.5	106.5	106.5
349.67	-32.68	288.84	106.25	106.25	106.25
349.67	-35.948	288.77	105.75	105.75	105.75
349.67	-39.216	288.72	105.75	105.75	105.75
349.67	-42.484	288.67	106.5	106.5	106.5
349.67	-45.752	288.55	107	107	107
349.67	-52.288	288.36	107.5	107.5	107.5
349.67	-55.556	288.33	108.5	108.5	108.5
349.67	-58.824	288.3	107.75	107.75	107.75
349.67	-62.092	288.24	108	108	108
349.67	-65.359	288.27	109	109	109
349.67	-68.627	288.39	108.75	108.75	108.75
349.67	-71.895	288.53	108.25	108.25	108.25
349.67	-75.163	288.69	108.75	108.75	108.75
349.67	-81.699	288.98	108.5	108.5	108.5
349.67	-88.235	289.19	109.25	109.25	109.25
349.67	-91.503	289.33	110.5	110.5	110.5
349.67	-94.771	289.52	110	110	110
349.67	-98.039	289.75	110.5	110.5	110.5
349.67	-101.31	290.03	111.25	111.25	111.25
349.67	-104.58	290.34	111.5	111.5	111.5
349.67	-107.84	290.6	110.25	110.25	110.25
349.67	-114.38	290.95	110.5	110.5	110.5
349.67	-117.65	291	110.75	110.75	110.75
349.67	-120.92	291.04	110.5	110.5	110.5
349.67	-124.18	291.05	109	109	109
349.67	-127.45	291.03	107.75	107.75	107.75
349.67	-130.72	290.97	102.25	102.25	102.25
349.67	-133.99	290.83	92.25	92.25	92.25
349.67	-137.25	290.57	74.75	74.75	74.75
349.67	-140.52	290.17	51.25	51.25	51.25
349.67	-143.79	288.59	34	34	34
349.67	-147.06	285.57	31.75	31.75	31.75
349.67	-150.33	280.48	32.25	32.25	32.25
349.67	-153.59	277.81	32.25	32.25	32.25
349.67	-156.86	274.62	32.5	32.5	32.5
349.67	-160.13	272.2	34	34	34
349.67	-163.4	271.23	34.25	34.25	34.25
349.67	-166.67	267.71	34.75	34.75	34.75
349.67	-169.93	270.07	34	34	34
349.67	-173.2	272.56	33.5	33.5	33.5
349.67	-176.47	270.76	34.75	34.75	34.75
349.67	-179.74	269.3	32.5	32.5	32.5
349.67	-183.01	268.21	31.25	31.25	31.25
349.67	-186.27	267.95	31	31	31
349.67	-189.54	265.57	31.25	31.25	31.25
349.67	-192.81	262.73	31.25	31.25	31.25
349.67	-196.08	262.55	31	31	31
349.67	-199.35	262.05	31.75	31.75	31.75
349.67	-202.61	259.32	32	32	32
349.67	-205.88	255.6	32	32	32
349.67	-209.15	252.67	31	31	31
349.67	-212.42	250.95	33.25	33.25	33.25
349.67	-215.69	249.79	33.75	33.75	33.75
349.67	-218.95	247.97	34.25	34.25	34.25
349.67	-222.22	244.92	34	34	34
349.67	-225.49	240.19	33.5	33.5	33.5
349.67	-228.76	238.17	32.25	32.25	32.25
349.67	-232.03	238.9	31.75	31.75	31.75
349.67	-235.29	239.8	31.5	31.5	31.5
349.67	-238.56	241.59	33.25	33.25	33.25
349.67	-241.83	243.62	33.5	33.5	33.5
349.67	-245.1	244.91	36	36	36
349.67	-248.37	245.67	35.25	35.25	35.25
349.67	-251.63	248.09	34.75	34.75	34.75
349.67	-254.9	249.36	35	35	35
349.67	-258.17	248.31	35.75	35.75	35.75
349.67	-261.44	249.73	36.75	36.75	36.75
349.67	-264.71	250.4	37.25	37.25	37.25
349.67	-267.97	248.09	35.75	35.75	35.75
349.67	-271.24	249.19	34.25	34.25	34.25
349.67	-274.51	253.43	35	35	35
349.67	-277.78	257.88	34.75	34.75	34.75
349.67	-281.05	259.54	34.75	34.75	34.75
349.67	-284.31	257.68	35	35	35
349.67	-287.58	255.59	34.75	34.75	34.75
349.67	-290.85	253.24	34	34	34
349.67	-294.12	251.37	34.25	34.25	34.25
349.67	-297.39	250.31	33.75	33.75	33.75
349.67	-300.65	252.37	33	33	33
349.67	-303.92	254.28	33.25	33.25	33.25
349.67	-307.19	252.96	33.25	33.25	33.25
349.67	-310.46	255.12	31.25	31.25	31.25
349.67	-313.73	258.05	30	30	30
349.67	-316.99	259.27	29.25	29.25	29.25
349.67	-320.26	260.8	29.25	29.25	29.25
349.67	-323.53	261.22	28	28	28
349.67	-326.8	261.94	25.25	25.25	25.25
349.67	-330.07	263.55	23	23	23
349.67	-336.6	267.21	16.5	16.5	16.5
349.67	-339.87	269.11	28.5	28.5	28.5
349.67	-343.14	270.99	35.75	35.75	35.75
349.67	-346.41	272.81	38.25	38.25	38.25
349.67	-349.67	274.79	33.25	33.25	33.25
349.67	-352.94	277.77	34.75	34.75	34.75
349.67	-356.21	281.73	35	35	35
349.67	-359.48	285.86	36	36	36
349.67	-362.75	290.08	36.25	36.25	36.25
349.67	-366.01	294.59	36.75	36.75	36.75
349.67	-369.28	299.34	36.5	36.5	36.5
349.67	-372.55	303.98	36.25	36.25	36.25
349.67	-375.82	308.5	35.5	35.5	35.5
349.67	-379.08	313.37	36.25	36.25	36.25
349.67	-382.35	318.25	35.75	35.75	35.75
349.67	-385.62	322.79	36.25	36.25	36.25
349.67	-388.89	327.45	35.5	35.5	35.5
349.67	-392.16	332.22	34.5	34.5	34.5
349.67	-395.42	336.99	32.25	32.25	32.25
349.67	-398.69	341.69	31.25	31.25	31.25
349.67	-401.96	346.1	30.75	30.75	30.75
349.67	-405.23	350.44	29.25	29.25	29.25
349.67	-408.5	354.96	30.5	30.5	30.5
349.67	-411.76	359.37	32.25	32.25	32.25
349.67	-415.03	363.65	33	33	33
349.67	-418.3	367.93	33.75	33.75	33.75
349.67	-421.57	372.49	33	33	33
349.67	-424.84	377.2	31.75	31.75	31.75
349.67	-428.1	381.42	31.75	31.75	31.75
349.67	-431.37	385.15	33.75	33.75	33.75
349.67	-434.64	388.83	34	34	34
349.67	-437.91	392.96	33.75	33.75	33.75
349.67	-441.18	397.06	33.25	33.25	33.25
349.67	-444.44	400.75	33.25	33.25	33.25
349.67	-447.71	404.54	33.5	33.5	33.5
349.67	-450.98	408.87	34.75	34.75	34.75
349.67	-454.25	413.64	35	35	35
349.67	-457.52	418.78	34.25	34.25	34.25
349.67	-464.05	429.48	33.5	33.5	33.5
349.67	-467.32	434.87	33.75	33.75	33.75
349.67	-470.59	440.24	33.75	33.75	33.75
349.67	-473.86	445.7	33.75	33.75	33.75
349.67	-477.12	451.93	34.25	34.25	34.25
349.67	-480.39	454.58	34.25	34.25	34.25
349.67	-483.66	453.94	34.25	34.25	34.25
349.67	-486.93	455.69	34	34	34
349.67	-490.2	459.31	33.25	33.25	33.25
349.67	-493.46	462.17	33.75	33.75	33.75
349.67	-496.73	461.28	35	35	35
349.67	-500	457.59	36	36	36
349.67	-503.27	457.79	35.75	35.75	35.75
349.67	-506.54	462.21	35	35	35
349.67	-509.8	464.72	34.5	34.5	34.5
349.67	-513.07	464.07	34	34	34
349.67	-516.34	461.9	34.75	34.75	34.75
349.67	-519.61	457.89	32.5	32.5	32.5
349.67	-522.88	454.4	31.25	31.25	31.25
349.67	-526.14	453.5	30.5	30.5	30.5
349.67	-529.41	451.12	29.75	29.75	29.75
349.67	-532.68	449.51	28.75	28.75	28.75
349.67	-535.95	451.03	37.25	37.25	37.25
349.67	-539.22	452.78	44.75	44.75	44.75
349.67	-542.48	454.47	45.25	45.25	45.25
349.67	-545.75	456.05	33.5	33.5	33.5
349.67	-549.02	457.15	24.75	24.75	24.75
349.67	-552.29	457.45	26	26	26
349.67	-555.56	457.27	24.5	24.5	24.5
349.67	-558.82	457.62	24.75	24.75	24.75
349.67	-562.09	458.6	43.25	43.25	43.25
349.67	-565.36	459.57	48	48	48
349.67	-568.63	460.41	49.5	49.5	49.5
349.67	-571.9	460.79	40.25	40.25	40.25
349.67	-575.16	460.17	30.5	30.5	30.5
349.67	-578.43	458.08	30	30	30
349.67	-581.7	454.56	30.75	30.75	30.75
349.67	-584.97	452.03	30.75	30.75	30.75
349.67	-588.24	449.79	31	31	31
349.67	-591.5	447.69	31.25	31.25	31.25
349.67	-594.77	447.9	31.5	31.5	31.5
349.67	-598.04	447.1	32	32	32
349.67	-601.31	443.95	33.25	33.25	33.25
349.67	-604.58	443.2	34.25	34.25	34.25
349.67	-607.84	445.61	34.75	34.75	34.75
349.67	-611.11	448.63	34	34	34
349.67	-614.38	451.9	35.75	35.75	35.75
349.67	-617.65	455.03	34.5	34.5	34.5
349.67	-620.92	457.9	32	32	32
349.67	-624.18	460.61	32	32	32
349.67	-627.45	463.48	32.5	32.5	32.5
349.67	-630.72	466.57	32	32	32
349.67	-633.99	469.84	32	32	32
349.67	-637.25	473.27	32.25	32.25	32.25
349.67	-640.52	476.79	31.75	31.75	31.75
349.67	-643.79	480.26	30.75	30.75	30.75
349.67	-647.06	483.5	31.25	31.25	31.25
349.67	-650.33	486.31	31.25	31.25	31.25
349.67	-653.59	489.35	31.25	31.25	31.25
349.67	-656.86	492.86	31.75	31.75	31.75
349.67	-660.13	495.91	31.5	31.5	31.5
349.67	-663.4	498.65	32	32	32
349.67	-666.67	500.79	32.75	32.75	32.75
349.67	-669.93	502.05	32.75	32.75	32.75
349.67	-673.2	504.71	33.5	33.5	33.5
349.67	-676.47	509.53	33.5	33.5	33.5
349.67	-679.74	515.73	33.5	33.5	33.5
349.67	-683.01	524.72	33.5	33.5	33.5
349.67	-686.27	537.96	33.75	33.75	33.75
349.67	-689.54	517.72	32.25	32.25	32.25
349.67	-692.81	497.4	31	31	31
349.67	-699.35	512.61	28.75	28.75	28.75
349.67	-702.61	515.26	28.25	28.25	28.25
349.67	-705.88	515.68	27	27	27
349.67	-709.15	517.48	27	27	27
349.67	-715.69	526.59	26.5	26.5	26.5
349.67	-718.95	529.63	27.25	27.25	27.25
349.67	-722.22	531.6	28	28	28
349.67	-725.49	533.28	27.75	27.75	27.75
349.67	-728.76	534.88	28.5	28.5	28.5
349.67	-732.03	536.73	28.75	28.75	28.75
349.67	-735.29	537.43	29	29	29
349.67	-738.56	537.82	29	29	29
349.67	-745.1	538.63	29	29	29
349.67	-748.37	538.72	29.25	29.25	29.25
349.67	-751.63	539.63	29	29	29
349.67	-754.9	540.46	28.25	28.25	28.25
349.67	-758.17	541.2	28.25	28.25	28.25
349.67	-761.44	541.64	40.75	40.75	40.75
349.67	-764.71	542.06	60	60	60
349.67	-767.97	542.44	83	83	83
349.67	-771.24	542.78	97.75	97.75	97.75
349.67	-774.51	542.93	103.25	103.25	103.25
349.67	-777.78	542.87	103	103	103
349.67	-781.05	542.78	103.75	103.75	103.75
349.67	-784.31	542.68	105.25	105.25	105.25
349.67	-787.58	542.55	105.75	105.75	105.75
349.67	-794.12	542.21	105.75	105.75	105.75
349.67	-800.65	541.74	105	105	105
349.67	-803.92	541.5	105.5	105.5	105.5
349.67	-807.19	541.32	104	104	104
349.67	-810.46	541.16	104	104	104
349.67	-813.73	540.99	103.5	103.5	103.5
349.67	-816.99	540.74	103.75	103.75	103.75
349.67	-820.26	540.41	102.25	102.25	102.25
349.67	-823.53	540.03	102.5	102.5	102.5
349.67	-826.8	539.56	104	104	104
349.67	-830.07	539.06	103.25	103.25	103.25
349.67	-833.33	538.65	103.75	103.75	103.75
349.67	-836.6	538.32	104.25	104.25	104.25
352.94	-3.268	289.62	106.75	106.75	106.75
352.94	-9.8039	289.32	106	106	106
352.94	-13.072	289.05	105.5	105.5	105.5
352.94	-16.34	288.86	105.5	105.5	105.5
352.94	-19.608	288.71	106.25	106.25	106.25
352.94	-26.144	288.23	106.25	106.25	106.25
352.94	-29.412	288.13	106	106	106
352.94	-32.68	288.05	107.5	107.5	107.5
352.94	-35.948	288.04	105.75	105.75	105.75
352.94	-39.216	288.01	106.5	106.5	106.5
352.94	-42.484	287.93	106.75	106.75	106.75
352.94	-49.02	287.71	107.5	107.5	107.5
352.94	-52.288	287.62	107.25	107.25	107.25
352.94	-55.556	287.63	107.5	107.5	107.5
352.94	-58.824	287.62	108.25	108.25	108.25
352.94	-62.092	287.59	109	109	109
352.94	-71.895	288.02	108.75	108.75	108.75
352.94	-75.163	288.23	108.75	108.75	108.75
352.94	-78.431	288.43	110	110	110
352.94	-81.699	288.58	109.75	109.75	109.75
352.94	-84.967	288.73	109.25	109.25	109.25
352.94	-88.235	288.9	110.5	110.5	110.5
352.94	-94.771	289.33	110.5	110.5	110.5
352.94	-98.039	289.62	111.5	111.5	111.5
352.94	-101.31	289.92	111.25	111.25	111.25
352.94	-104.58	290.27	111	111	111
352.94	-107.84	290.59	111	111	111
352.94	-117.65	291.16	110.5	110.5	110.5
352.94	-120.92	291.28	109.5	109.5	109.5
352.94	-124.18	291.38	109.25	109.25	109.25
352.94	-130.72	291.49	103	103	103
352.94	-133.99	291.43	94.25	94.25	94.25
352.94	-137.25	291.19	76	76	76
352.94	-140.52	290.68	52.75	52.75	52.75
352.94	-143.79	289.32	34.5	34.5	34.5
352.94	-147.06	286.35	31.5	31.5	31.5
352.94	-150.33	281.85	31.5	31.5	31.5
352.94	-153.59	279.41	31.25	31.25	31.25
352.94	-156.86	275.89	33.25	33.25	33.25
352.94	-160.13	273.75	34.25	34.25	34.25
352.94	-163.4	272.02	35	35	35
352.94	-166.67	269.97	35.5	35.5	35.5
352.94	-169.93	273.74	35.75	35.75	35.75
352.94	-173.2	274.75	36.25	36.25	36.25
352.94	-176.47	271.68	34.75	34.75	34.75
352.94	-179.74	269.88	33.5	33.5	33.5
352.94	-183.01	268.79	33	33	33
352.94	-186.27	267.6	32	32	32
352.94	-189.54	265.59	33.5	33.5	33.5
352.94	-192.81	263.67	33	33	33
352.94	-196.08	263.74	33.75	33.75	33.75
352.94	-199.35	262.87	33.75	33.75	33.75
352.94	-202.61	260.2	33.5	33.5	33.5
352.94	-205.88	257.68	32.25	32.25	32.25
352.94	-209.15	255.21	32.5	32.5	32.5
352.94	-212.42	252.8	33.5	33.5	33.5
352.94	-215.69	250.61	34.75	34.75	34.75
352.94	-218.95	248.33	34	34	34
352.94	-222.22	245.07	34	34	34
352.94	-225.49	241.68	33	33	33
352.94	-228.76	240	32	32	32
352.94	-232.03	239.38	31.75	31.75	31.75
352.94	-235.29	238.53	32.5	32.5	32.5
352.94	-238.56	239.84	33	33	33
352.94	-241.83	243.96	33.75	33.75	33.75
352.94	-245.1	245.04	33.25	33.25	33.25
352.94	-248.37	243.23	33.75	33.75	33.75
352.94	-251.63	244.37	33	33	33
352.94	-254.9	247.23	33.25	33.25	33.25
352.94	-258.17	249.54	35.25	35.25	35.25
352.94	-261.44	250.43	35.75	35.75	35.75
352.94	-264.71	248.79	35	35	35
352.94	-267.97	247.22	35	35	35
352.94	-271.24	248.26	34.25	34.25	34.25
352.94	-274.51	251.17	34.5	34.5	34.5
352.94	-277.78	253.7	35.5	35.5	35.5
352.94	-281.05	254.61	35.5	35.5	35.5
352.94	-284.31	254.06	34.75	34.75	34.75
352.94	-287.58	253.04	35	35	35
352.94	-290.85	250.14	36	36	36
352.94	-294.12	248.71	36.25	36.25	36.25
352.94	-297.39	249.2	34.75	34.75	34.75
352.94	-300.65	249.68	34.25	34.25	34.25
352.94	-303.92	250.41	33.75	33.75	33.75
352.94	-307.19	249.93	33.75	33.75	33.75
352.94	-310.46	250.09	34	34	34
352.94	-313.73	252.34	31.75	31.75	31.75
352.94	-316.99	255.87	31.25	31.25	31.25
352.94	-320.26	257.76	30.75	30.75	30.75
352.94	-323.53	257.27	30	30	30
352.94	-330.07	258.67	25.25	25.25	25.25
352.94	-333.33	261.12	17.75	17.75	17.75
352.94	-336.6	263.49	16.25	16.25	16.25
352.94	-339.87	265.72	28.75	28.75	28.75
352.94	-343.14	267.81	35.25	35.25	35.25
352.94	-346.41	269.71	36.5	36.5	36.5
352.94	-349.67	272.17	30.25	30.25	30.25
352.94	-352.94	275.64	32.5	32.5	32.5
352.94	-356.21	279.64	34	34	34
352.94	-359.48	283.85	35.25	35.25	35.25
352.94	-362.75	288.19	35.75	35.75	35.75
352.94	-366.01	292.7	36.5	36.5	36.5
352.94	-369.28	297.33	36.75	36.75	36.75
352.94	-372.55	301.97	36.75	36.75	36.75
352.94	-375.82	306.59	37	37	37
352.94	-379.08	311.31	38	38	38
352.94	-382.35	316.02	37.5	37.5	37.5
352.94	-385.62	320.61	37.25	37.25	37.25
352.94	-388.89	325.16	36.25	36.25	36.25
352.94	-392.16	329.58	36	36	36
352.94	-395.42	334.27	35.5	35.5	35.5
352.94	-398.69	339.17	35.5	35.5	35.5
352.94	-401.96	343.89	35.25	35.25	35.25
352.94	-405.23	348.33	36	36	36
352.94	-408.5	352.81	36.5	36.5	36.5
352.94	-411.76	357.35	37.25	37.25	37.25
352.94	-415.03	361.69	37.25	37.25	37.25
352.94	-418.3	366.12	36.5	36.5	36.5
352.94	-421.57	370.91	35.75	35.75	35.75
352.94	-424.84	375.56	32.75	32.75	32.75
352.94	-428.1	379.62	32.25	32.25	32.25
352.94	-431.37	383.5	33.5	33.5	33.5
352.94	-434.64	387.33	35.25	35.25	35.25
352.94	-437.91	391.3	34.5	34.5	34.5
352.94	-441.18	395.26	33.75	33.75	33.75
352.94	-444.44	399.12	34.5	34.5	34.5
352.94	-447.71	402.96	35	35	35
352.94	-450.98	407.19	36	36	36
352.94	-454.25	412.11	36.5	36.5	36.5
352.94	-457.52	417.49	35.75	35.75	35.75
352.94	-460.78	422.92	34.75	34.75	34.75
352.94	-464.05	428.3	34	34	34
352.94	-467.32	433.7	34	34	34
352.94	-470.59	439.06	35.25	35.25	35.25
352.94	-473.86	444.54	35	35	35
352.94	-477.12	450.41	35	35	35
352.94	-480.39	452.51	34.25	34.25	34.25
352.94	-483.66	454.49	35	35	35
352.94	-486.93	456.44	34.25	34.25	34.25
352.94	-490.2	458.94	33.75	33.75	33.75
352.94	-493.46	461.41	33.5	33.5	33.5
352.94	-496.73	458.87	35	35	35
352.94	-500	455.42	35	35	35
352.94	-503.27	456.4	34.75	34.75	34.75
352.94	-506.54	460.95	34	34	34
352.94	-509.8	464.99	34.25	34.25	34.25
352.94	-513.07	465.89	35.25	35.25	35.25
352.94	-516.34	462.86	35.25	35.25	35.25
352.94	-519.61	459.44	33.25	33.25	33.25
352.94	-522.88	455.19	32.5	32.5	32.5
352.94	-526.14	453.5	32.25	32.25	32.25
352.94	-529.41	452.02	32.25	32.25	32.25
352.94	-532.68	449.9	31.25	31.25	31.25
352.94	-535.95	450.86	39	39	39
352.94	-539.22	452.7	46.75	46.75	46.75
352.94	-542.48	454.4	47	47	47
352.94	-545.75	455.94	34	34	34
352.94	-549.02	456.93	24.5	24.5	24.5
352.94	-552.29	457.19	24.75	24.75	24.75
352.94	-555.56	457.1	23	23	23
352.94	-558.82	457.54	24	24	24
352.94	-562.09	458.55	39.25	39.25	39.25
352.94	-565.36	459.54	47	47	47
352.94	-568.63	460.45	51.25	51.25	51.25
352.94	-571.9	460.99	41.75	41.75	41.75
352.94	-575.16	460.01	31.5	31.5	31.5
352.94	-578.43	456.59	30.75	30.75	30.75
352.94	-581.7	450.49	31.25	31.25	31.25
352.94	-588.24	451.77	31.5	31.5	31.5
352.94	-591.5	449.39	32.75	32.75	32.75
352.94	-594.77	447.02	32.75	32.75	32.75
352.94	-598.04	447.04	33	33	33
352.94	-601.31	445.17	33.25	33.25	33.25
352.94	-604.58	443.95	32.5	32.5	32.5
352.94	-607.84	444.25	33.25	33.25	33.25
352.94	-611.11	447.51	33.25	33.25	33.25
352.94	-614.38	451.2	31.75	31.75	31.75
352.94	-617.65	454.7	30.75	30.75	30.75
352.94	-620.92	458	31.5	31.5	31.5
352.94	-624.18	461.03	31.5	31.5	31.5
352.94	-627.45	464.14	31.75	31.75	31.75
352.94	-630.72	467.39	32	32	32
352.94	-633.99	470.69	32.25	32.25	32.25
352.94	-637.25	474.08	33.5	33.5	33.5
352.94	-640.52	477.54	32.5	32.5	32.5
352.94	-643.79	481	33	33	33
352.94	-647.06	484.42	32.75	32.75	32.75
352.94	-650.33	487.35	33.25	33.25	33.25
352.94	-653.59	490.21	32	32	32
352.94	-656.86	493.44	32.75	32.75	32.75
352.94	-660.13	496.51	33	33	33
352.94	-663.4	499.37	33.5	33.5	33.5
352.94	-666.67	502	33.75	33.75	33.75
352.94	-669.93	504.48	34.75	34.75	34.75
352.94	-673.2	507.75	34.5	34.5	34.5
352.94	-676.47	511.74	35.5	35.5	35.5
352.94	-679.74	516.2	35.75	35.75	35.75
352.94	-683.01	521.33	36.25	36.25	36.25
352.94	-686.27	524.99	36	36	36
352.94	-689.54	520.56	36	36	36
352.94	-692.81	512.39	34.75	34.75	34.75
352.94	-696.08	512.03	33.5	33.5	33.5
352.94	-699.35	513.94	32.5	32.5	32.5
352.94	-702.61	515.63	31.75	31.75	31.75
352.94	-705.88	519.03	32.25	32.25	32.25
352.94	-709.15	521.95	32.75	32.75	32.75
352.94	-712.42	525.36	31.75	31.75	31.75
352.94	-715.69	528.7	32.25	32.25	32.25
352.94	-718.95	531.36	32.25	32.25	32.25
352.94	-722.22	533.26	32	32	32
352.94	-725.49	535.29	31	31	31
352.94	-728.76	537.06	30.25	30.25	30.25
352.94	-732.03	538.64	29.25	29.25	29.25
352.94	-735.29	540.63	29	29	29
352.94	-738.56	541.82	28.5	28.5	28.5
352.94	-741.83	542.6	29	29	29
352.94	-745.1	542.74	28	28	28
352.94	-748.37	543.1	27.75	27.75	27.75
352.94	-751.63	544.22	27.75	27.75	27.75
352.94	-754.9	544.84	26.75	26.75	26.75
352.94	-758.17	545.3	28.5	28.5	28.5
352.94	-761.44	545.65	42.5	42.5	42.5
352.94	-764.71	545.96	63	63	63
352.94	-767.97	546.24	85.75	85.75	85.75
352.94	-771.24	546.47	98.25	98.25	98.25
352.94	-774.51	546.55	103.25	103.25	103.25
352.94	-777.78	546.46	104	104	104
352.94	-781.05	546.33	104.25	104.25	104.25
352.94	-784.31	546.19	105.25	105.25	105.25
352.94	-787.58	546.04	105.25	105.25	105.25
352.94	-790.85	545.85	106.5	106.5	106.5
352.94	-794.12	545.63	106	106	106
352.94	-797.39	545.37	106	106	106
352.94	-800.65	545.09	106	106	106
352.94	-803.92	544.81	105	105	105
352.94	-807.19	544.59	105.5	105.5	105.5
352.94	-810.46	544.41	104.75	104.75	104.75
352.94	-813.73	544.19	103.5	103.5	103.5
352.94	-816.99	543.94	103.5	103.5	103.5
352.94	-820.26	543.61	102.5	102.5	102.5
352.94	-826.8	542.73	104	104	104
352.94	-836.6	541.59	104.25	104.25	104.25
356.21	-3.268	288.7	106.25	106.25	106.25
356.21	-6.5359	288.64	106	106	106
356.21	-16.34	287.92	106.5	106.5	106.5
356.21	-19.608	287.72	106.5	106.5	106.5
356.21	-22.876	287.51	106.25	106.25	106.25
356.21	-26.144	287.37	107	107	107
356.21	-29.412	287.32	107.25	107.25	107.25
356.21	-32.68	287.28	106	106	106
356.21	-49.02	286.97	107.75	107.75	107.75
356.21	-52.288	286.88	107	107	107
356.21	-55.556	286.9	108	108	108
356.21	-58.824	286.91	107.75	107.75	107.75
356.21	-62.092	286.93	108.5	108.5	108.5
356.21	-65.359	287.09	107.25	107.25	107.25
356.21	-68.627	287.27	109	109	109
356.21	-71.895	287.46	108.75	108.75	108.75
356.21	-81.699	288.18	111	111	111
356.21	-84.967	288.37	111	111	111
356.21	-88.235	288.58	110.5	110.5	110.5
356.21	-91.503	288.84	110	110	110
356.21	-94.771	289.14	110	110	110
356.21	-98.039	289.47	110.5	110.5	110.5
356.21	-101.31	289.79	111.5	111.5	111.5
356.21	-104.58	290.18	111.5	111.5	111.5
356.21	-107.84	290.58	111	111	111
356.21	-111.11	290.88	110.5	110.5	110.5
356.21	-114.38	291.12	110.25	110.25	110.25
356.21	-120.92	291.55	109.75	109.75	109.75
356.21	-124.18	291.73	108.75	108.75	108.75
356.21	-127.45	291.93	107.75	107.75	107.75
356.21	-130.72	292.09	103.5	103.5	103.5
356.21	-133.99	292.1	95.5	95.5	95.5
356.21	-137.25	291.95	78.75	78.75	78.75
356.21	-140.52	291.52	54.25	54.25	54.25
356.21	-143.79	289.99	35.5	35.5	35.5
356.21	-147.06	286.42	33	33	33
356.21	-150.33	283.18	33.5	33.5	33.5
356.21	-153.59	282.14	33.75	33.75	33.75
356.21	-156.86	278.65	35.5	35.5	35.5
356.21	-160.13	274.9	36.5	36.5	36.5
356.21	-163.4	273.14	37	37	37
356.21	-166.67	272.34	37.25	37.25	37.25
356.21	-169.93	274.21	38	38	38
356.21	-173.2	275.08	39	39	39
356.21	-176.47	274.42	37.25	37.25	37.25
356.21	-179.74	272.78	35.5	35.5	35.5
356.21	-183.01	269.47	34.75	34.75	34.75
356.21	-186.27	268.06	35.5	35.5	35.5
356.21	-189.54	265.52	36.25	36.25	36.25
356.21	-192.81	262.6	36.5	36.5	36.5
356.21	-196.08	262.8	37	37	37
356.21	-199.35	262.42	36.25	36.25	36.25
356.21	-202.61	260.92	35.5	35.5	35.5
356.21	-205.88	259.79	35	35	35
356.21	-209.15	257.75	35.75	35.75	35.75
356.21	-212.42	254.38	36.75	36.75	36.75
356.21	-215.69	251.53	37.5	37.5	37.5
356.21	-218.95	248.73	36.75	36.75	36.75
356.21	-222.22	245.34	37	37	37
356.21	-225.49	242.39	36	36	36
356.21	-228.76	240.77	34.25	34.25	34.25
356.21	-232.03	240.07	33.25	33.25	33.25
356.21	-235.29	240.16	34.5	34.5	34.5
356.21	-238.56	241.18	36.75	36.75	36.75
356.21	-241.83	242.43	36.75	36.75	36.75
356.21	-245.1	242.15	37.25	37.25	37.25
356.21	-248.37	240.73	35.25	35.25	35.25
356.21	-251.63	241.96	34.75	34.75	34.75
356.21	-254.9	245.65	35.5	35.5	35.5
356.21	-258.17	249.16	36	36	36
356.21	-261.44	249.68	35.25	35.25	35.25
356.21	-264.71	247.11	35.5	35.5	35.5
356.21	-267.97	245.7	34.25	34.25	34.25
356.21	-271.24	246.38	34	34	34
356.21	-274.51	248.27	33	33	33
356.21	-277.78	250.21	32.5	32.5	32.5
356.21	-281.05	251.09	32	32	32
356.21	-284.31	250.85	32	32	32
356.21	-287.58	250.42	32.75	32.75	32.75
356.21	-290.85	248.67	33	33	33
356.21	-294.12	246.13	34	34	34
356.21	-297.39	245.13	32.75	32.75	32.75
356.21	-300.65	245.79	31.75	31.75	31.75
356.21	-303.92	246.73	32.5	32.5	32.5
356.21	-307.19	247.22	33.25	33.25	33.25
356.21	-310.46	246.95	33.25	33.25	33.25
356.21	-313.73	248.4	32	32	32
356.21	-316.99	251.97	31.5	31.5	31.5
356.21	-320.26	255.09	31	31	31
356.21	-323.53	254	31	31	31
356.21	-326.8	252.21	29.25	29.25	29.25
356.21	-330.07	254.2	25.75	25.75	25.75
356.21	-333.33	257	19.75	19.75	19.75
356.21	-336.6	259.92	17.25	17.25	17.25
356.21	-339.87	262.47	28.5	28.5	28.5
356.21	-343.14	264.8	35	35	35
356.21	-346.41	266.99	35.75	35.75	35.75
356.21	-349.67	269.66	31	31	31
356.21	-352.94	273.26	31.75	31.75	31.75
356.21	-356.21	277.39	32.75	32.75	32.75
356.21	-359.48	281.72	33.25	33.25	33.25
356.21	-362.75	286.16	34.25	34.25	34.25
356.21	-366.01	290.7	34.75	34.75	34.75
356.21	-369.28	295.32	35.5	35.5	35.5
356.21	-372.55	299.96	35.75	35.75	35.75
356.21	-375.82	304.6	36.5	36.5	36.5
356.21	-379.08	309.26	35.75	35.75	35.75
356.21	-382.35	313.9	35.75	35.75	35.75
356.21	-385.62	318.47	36.5	36.5	36.5
356.21	-388.89	322.99	36.5	36.5	36.5
356.21	-392.16	327.5	37	37	37
356.21	-395.42	332.14	37	37	37
356.21	-398.69	336.8	36.75	36.75	36.75
356.21	-401.96	341.56	36.75	36.75	36.75
356.21	-405.23	346.16	36.25	36.25	36.25
356.21	-408.5	350.61	36.25	36.25	36.25
356.21	-411.76	355.1	37.5	37.5	37.5
356.21	-415.03	359.66	37.75	37.75	37.75
356.21	-418.3	364.36	38	38	38
356.21	-421.57	369.07	35.75	35.75	35.75
356.21	-424.84	373.73	34	34	34
356.21	-428.1	378	34.5	34.5	34.5
356.21	-431.37	381.9	36.25	36.25	36.25
356.21	-434.64	385.71	36.25	36.25	36.25
356.21	-437.91	389.64	37.5	37.5	37.5
356.21	-441.18	393.58	36.5	36.5	36.5
356.21	-444.44	397.49	38.25	38.25	38.25
356.21	-447.71	401.38	38.25	38.25	38.25
356.21	-450.98	405.62	38.25	38.25	38.25
356.21	-454.25	410.6	38.5	38.5	38.5
356.21	-457.52	416.16	37.25	37.25	37.25
356.21	-460.78	421.71	36.75	36.75	36.75
356.21	-464.05	427.12	36.5	36.5	36.5
356.21	-467.32	432.49	35	35	35
356.21	-470.59	437.74	36	36	36
356.21	-473.86	442.85	35.25	35.25	35.25
356.21	-477.12	447.6	35.5	35.5	35.5
356.21	-480.39	451.35	35.5	35.5	35.5
356.21	-483.66	455.07	34.75	34.75	34.75
356.21	-486.93	456.88	35	35	35
356.21	-490.2	458.57	34.25	34.25	34.25
356.21	-493.46	459.71	35.25	35.25	35.25
356.21	-496.73	457.36	35.25	35.25	35.25
356.21	-500	454.79	36.25	36.25	36.25
356.21	-503.27	456.72	36.5	36.5	36.5
356.21	-506.54	459.53	35.25	35.25	35.25
356.21	-509.8	463.12	35.75	35.75	35.75
356.21	-513.07	466.33	36	36	36
356.21	-516.34	464.22	36	36	36
356.21	-519.61	460.83	34.25	34.25	34.25
356.21	-522.88	456.5	33.5	33.5	33.5
356.21	-526.14	454.31	33.5	33.5	33.5
356.21	-529.41	452.37	33	33	33
356.21	-532.68	450.22	32.75	32.75	32.75
356.21	-535.95	451.04	40.75	40.75	40.75
356.21	-539.22	452.74	49.5	49.5	49.5
356.21	-542.48	454.4	49.75	49.75	49.75
356.21	-545.75	455.9	35.75	35.75	35.75
356.21	-549.02	456.85	26.75	26.75	26.75
356.21	-552.29	457.1	24.5	24.5	24.5
356.21	-555.56	457.01	23	23	23
356.21	-558.82	457.46	23.75	23.75	23.75
356.21	-562.09	458.51	40.75	40.75	40.75
356.21	-565.36	459.53	47	47	47
356.21	-568.63	460.46	50.75	50.75	50.75
356.21	-571.9	460.98	42.75	42.75	42.75
356.21	-578.43	456.6	31.75	31.75	31.75
356.21	-581.7	447.51	32	32	32
356.21	-584.97	444.6	31.75	31.75	31.75
356.21	-588.24	448.28	31.5	31.5	31.5
356.21	-591.5	448.87	32	32	32
356.21	-594.77	449.67	32.75	32.75	32.75
356.21	-598.04	448.88	32.5	32.5	32.5
356.21	-601.31	445.74	31.75	31.75	31.75
356.21	-604.58	444.7	32.25	32.25	32.25
356.21	-607.84	445.03	32	32	32
356.21	-611.11	446.28	31	31	31
356.21	-614.38	450.67	31.25	31.25	31.25
356.21	-617.65	454.58	30.75	30.75	30.75
356.21	-620.92	458.2	30.75	30.75	30.75
356.21	-624.18	461.54	31.25	31.25	31.25
356.21	-627.45	464.81	32	32	32
356.21	-630.72	468.17	33.25	33.25	33.25
356.21	-633.99	471.43	33	33	33
356.21	-637.25	474.83	33.5	33.5	33.5
356.21	-640.52	478.28	32.25	32.25	32.25
356.21	-643.79	481.76	33.25	33.25	33.25
356.21	-650.33	488.45	33.25	33.25	33.25
356.21	-653.59	491.16	33.25	33.25	33.25
356.21	-656.86	494.17	33	33	33
356.21	-660.13	497.34	33	33	33
356.21	-663.4	500.31	33.25	33.25	33.25
356.21	-666.67	503.19	32.75	32.75	32.75
356.21	-669.93	506.11	34	34	34
356.21	-673.2	509.45	33.75	33.75	33.75
356.21	-676.47	512.67	34	34	34
356.21	-679.74	515.98	33.5	33.5	33.5
356.21	-683.01	519.32	35	35	35
356.21	-689.54	519.92	36.75	36.75	36.75
356.21	-692.81	517.37	36	36	36
356.21	-696.08	516.9	35.5	35.5	35.5
356.21	-699.35	517.7	35.5	35.5	35.5
356.21	-702.61	519.39	35.75	35.75	35.75
356.21	-705.88	522.19	35.25	35.25	35.25
356.21	-709.15	525.27	35.75	35.75	35.75
356.21	-712.42	528.39	35.25	35.25	35.25
356.21	-715.69	531.07	35.25	35.25	35.25
356.21	-718.95	533.42	35.5	35.5	35.5
356.21	-722.22	535.59	35.75	35.75	35.75
356.21	-725.49	537.6	35.75	35.75	35.75
356.21	-728.76	539.41	35.25	35.25	35.25
356.21	-732.03	541.01	34.5	34.5	34.5
356.21	-735.29	542.69	33.5	33.5	33.5
356.21	-738.56	544.21	33	33	33
356.21	-741.83	545.43	31	31	31
356.21	-745.1	546.64	29.75	29.75	29.75
356.21	-748.37	548.27	27	27	27
356.21	-754.9	549.41	25	25	25
356.21	-758.17	549.55	29.5	29.5	29.5
356.21	-761.44	549.68	44.75	44.75	44.75
356.21	-764.71	549.85	64.75	64.75	64.75
356.21	-767.97	550.02	88.25	88.25	88.25
356.21	-771.24	550.18	99.75	99.75	99.75
356.21	-774.51	550.18	104.75	104.75	104.75
356.21	-781.05	549.88	104.5	104.5	104.5
356.21	-784.31	549.73	104.75	104.75	104.75
356.21	-787.58	549.55	105	105	105
356.21	-790.85	549.33	106.25	106.25	106.25
356.21	-794.12	549.09	106.75	106.75	106.75
356.21	-797.39	548.78	106.5	106.5	106.5
356.21	-800.65	548.42	106.75	106.75	106.75
356.21	-803.92	548.13	105.25	105.25	105.25
356.21	-807.19	547.89	104.75	104.75	104.75
356.21	-813.73	547.41	104.25	104.25	104.25
356.21	-816.99	547.16	104.25	104.25	104.25
356.21	-820.26	546.81	104.25	104.25	104.25
356.21	-826.8	545.93	104	104	104
356.21	-830.07	545.49	104.5	104.5	104.5
356.21	-833.33	545.11	105.25	105.25	105.25
356.21	-836.6	544.9	105	105	105
359.48	-3.268	287.73	106.5	106.5	106.5
359.48	-6.5359	287.67	106.5	106.5	106.5
359.48	-9.8039	287.46	106.5	106.5	106.5
359.48	-13.072	287.19	106.25	106.25	106.25
359.48	-16.34	286.96	107.25	107.25	107.25
359.48	-19.608	286.78	106.5	106.5	106.5
359.48	-26.144	286.53	107	107	107
359.48	-29.412	286.48	106.5	106.5	106.5
359.48	-32.68	286.47	107.25	107.25	107.25
359.48	-35.948	286.48	107	107	107
359.48	-42.484	286.39	107.75	107.75	107.75
359.48	-45.752	286.32	107.5	107.5	107.5
359.48	-49.02	286.2	107.5	107.5	107.5
359.48	-52.288	286.11	107.25	107.25	107.25
359.48	-55.556	286.14	107.75	107.75	107.75
359.48	-58.824	286.19	107.5	107.5	107.5
359.48	-62.092	286.27	108.5	108.5	108.5
359.48	-65.359	286.45	109	109	109
359.48	-75.163	287.13	110.25	110.25	110.25
359.48	-78.431	287.46	109.75	109.75	109.75
359.48	-81.699	287.73	110.5	110.5	110.5
359.48	-84.967	287.96	110.5	110.5	110.5
359.48	-88.235	288.23	111	111	111
359.48	-91.503	288.56	110.75	110.75	110.75
359.48	-94.771	288.93	110.75	110.75	110.75
359.48	-101.31	289.72	110.5	110.5	110.5
359.48	-104.58	290.16	110.75	110.75	110.75
359.48	-111.11	290.91	111	111	111
359.48	-117.65	291.55	110.5	110.5	110.5
359.48	-120.92	291.85	110.5	110.5	110.5
359.48	-124.18	292.13	109.5	109.5	109.5
359.48	-127.45	292.43	107.25	107.25	107.25
359.48	-130.72	292.72	102.25	102.25	102.25
359.48	-133.99	292.88	95.75	95.75	95.75
359.48	-137.25	292.85	77.5	77.5	77.5
359.48	-140.52	292.54	55.5	55.5	55.5
359.48	-143.79	291.06	37	37	37
359.48	-147.06	287.36	35.75	35.75	35.75
359.48	-150.33	284.32	36.75	36.75	36.75
359.48	-153.59	283.27	37	37	37
359.48	-156.86	278.65	37.75	37.75	37.75
359.48	-160.13	274.05	39	39	39
359.48	-163.4	273.29	39	39	39
359.48	-166.67	273.41	39.75	39.75	39.75
359.48	-169.93	274.65	40.5	40.5	40.5
359.48	-173.2	276.57	41	41	41
359.48	-176.47	279.11	40	40	40
359.48	-179.74	277.33	37.5	37.5	37.5
359.48	-183.01	271.31	37.75	37.75	37.75
359.48	-186.27	268.76	37.25	37.25	37.25
359.48	-189.54	265.83	38.25	38.25	38.25
359.48	-192.81	262.39	39	39	39
359.48	-196.08	262.43	38.5	38.5	38.5
359.48	-199.35	263.08	38.75	38.75	38.75
359.48	-202.61	261.26	37.25	37.25	37.25
359.48	-205.88	259.92	36.5	36.5	36.5
359.48	-209.15	258.74	37.75	37.75	37.75
359.48	-212.42	255.43	39.25	39.25	39.25
359.48	-215.69	252.25	38.75	38.75	38.75
359.48	-218.95	248.61	38.75	38.75	38.75
359.48	-222.22	245.17	37.5	37.5	37.5
359.48	-225.49	242.74	36.75	36.75	36.75
359.48	-228.76	241.52	34.25	34.25	34.25
359.48	-232.03	240.91	35.75	35.75	35.75
359.48	-235.29	240.85	39	39	39
359.48	-238.56	241.39	40.5	40.5	40.5
359.48	-241.83	241.47	39.25	39.25	39.25
359.48	-245.1	239.41	39.25	39.25	39.25
359.48	-248.37	238.65	39.5	39.5	39.5
359.48	-251.63	241.14	38.5	38.5	38.5
359.48	-254.9	244.26	37.5	37.5	37.5
359.48	-258.17	247.71	39	39	39
359.48	-261.44	248.03	39	39	39
359.48	-264.71	245.25	38	38	38
359.48	-267.97	243.98	36.25	36.25	36.25
359.48	-271.24	244.19	35.25	35.25	35.25
359.48	-274.51	245.33	36.25	36.25	36.25
359.48	-277.78	247.01	35.25	35.25	35.25
359.48	-281.05	247.77	33.75	33.75	33.75
359.48	-287.58	247.49	33	33	33
359.48	-290.85	246.01	33.25	33.25	33.25
359.48	-294.12	243.62	33	33	33
359.48	-297.39	242.34	32	32	32
359.48	-300.65	242.54	31	31	31
359.48	-303.92	243.51	31.5	31.5	31.5
359.48	-307.19	244.35	31.75	31.75	31.75
359.48	-310.46	244.19	30.5	30.5	30.5
359.48	-313.73	245.38	28.5	28.5	28.5
359.48	-316.99	248.54	27	27	27
359.48	-320.26	250.1	28	28	28
359.48	-323.53	249.43	29	29	29
359.48	-326.8	249.2	28.25	28.25	28.25
359.48	-333.33	253.69	19	19	19
359.48	-336.6	256.71	16.75	16.75	16.75
359.48	-339.87	259.48	29.5	29.5	29.5
359.48	-343.14	262.06	37	37	37
359.48	-346.41	264.53	37.25	37.25	37.25
359.48	-349.67	267.24	30.75	30.75	30.75
359.48	-352.94	270.76	31.25	31.25	31.25
359.48	-356.21	275.02	32.5	32.5	32.5
359.48	-359.48	279.49	32.5	32.5	32.5
359.48	-362.75	284.02	33.25	33.25	33.25
359.48	-366.01	288.63	34.75	34.75	34.75
359.48	-369.28	293.28	35.25	35.25	35.25
359.48	-372.55	297.94	35	35	35
359.48	-375.82	302.59	35.5	35.5	35.5
359.48	-379.08	307.23	35.5	35.5	35.5
359.48	-382.35	311.85	35.25	35.25	35.25
359.48	-385.62	316.39	36	36	36
359.48	-388.89	320.84	36.75	36.75	36.75
359.48	-392.16	325.27	36.5	36.5	36.5
359.48	-395.42	330	37	37	37
359.48	-398.69	334.73	37.75	37.75	37.75
359.48	-401.96	339.4	37.25	37.25	37.25
359.48	-405.23	344.15	36.75	36.75	36.75
359.48	-408.5	348.74	35	35	35
359.48	-411.76	353.19	35.25	35.25	35.25
359.48	-415.03	357.89	35	35	35
359.48	-418.3	362.6	35.25	35.25	35.25
359.48	-421.57	367.29	35	35	35
359.48	-424.84	371.85	34	34	34
359.48	-428.1	375.95	35.25	35.25	35.25
359.48	-431.37	379.99	37.75	37.75	37.75
359.48	-434.64	383.98	38	38	38
359.48	-437.91	387.96	38	38	38
359.48	-441.18	391.93	37	37	37
359.48	-444.44	395.88	37.75	37.75	37.75
359.48	-447.71	399.85	38.75	38.75	38.75
359.48	-450.98	404.12	39	39	39
359.48	-454.25	409	38	38	38
359.48	-457.52	414.83	37	37	37
359.48	-460.78	420.66	36.75	36.75	36.75
359.48	-464.05	425.97	36.25	36.25	36.25
359.48	-467.32	431.34	35	35	35
359.48	-470.59	436.57	34.75	34.75	34.75
359.48	-473.86	441.51	35.75	35.75	35.75
359.48	-477.12	446.66	35.75	35.75	35.75
359.48	-480.39	451.1	34.75	34.75	34.75
359.48	-483.66	454.68	35	35	35
359.48	-486.93	457.42	35	35	35
359.48	-490.2	458.76	35.5	35.5	35.5
359.48	-493.46	458.6	35.75	35.75	35.75
359.48	-496.73	456.08	35.75	35.75	35.75
359.48	-500	452.53	36.25	36.25	36.25
359.48	-503.27	453.1	37	37	37
359.48	-506.54	457.19	37	37	37
359.48	-509.8	461.63	36.75	36.75	36.75
359.48	-513.07	466.28	37.25	37.25	37.25
359.48	-516.34	466.84	37	37	37
359.48	-519.61	463.18	35.75	35.75	35.75
359.48	-522.88	458.75	34	34	34
359.48	-526.14	454.92	33	33	33
359.48	-529.41	452.01	33.25	33.25	33.25
359.48	-532.68	450.58	33.5	33.5	33.5
359.48	-535.95	451.25	41.25	41.25	41.25
359.48	-539.22	452.87	52	52	52
359.48	-542.48	454.47	52.25	52.25	52.25
359.48	-545.75	455.89	38.5	38.5	38.5
359.48	-549.02	456.77	27.25	27.25	27.25
359.48	-552.29	457.04	24	24	24
359.48	-555.56	457.05	23.5	23.5	23.5
359.48	-558.82	457.52	24.5	24.5	24.5
359.48	-562.09	458.55	41.75	41.75	41.75
359.48	-565.36	459.58	51.75	51.75	51.75
359.48	-568.63	460.44	52.5	52.5	52.5
359.48	-571.9	460.84	44.25	44.25	44.25
359.48	-575.16	459.48	33.25	33.25	33.25
359.48	-578.43	455.26	32.25	32.25	32.25
359.48	-581.7	447.91	33	33	33
359.48	-584.97	445.38	32.25	32.25	32.25
359.48	-588.24	447.87	33	33	33
359.48	-591.5	448.15	33	33	33
359.48	-594.77	448.93	34.25	34.25	34.25
359.48	-598.04	447.77	33.5	33.5	33.5
359.48	-601.31	444.87	32.75	32.75	32.75
359.48	-604.58	444.14	32.5	32.5	32.5
359.48	-607.84	444.51	31.75	31.75	31.75
359.48	-611.11	446.81	31.25	31.25	31.25
359.48	-614.38	450.79	29.5	29.5	29.5
359.48	-617.65	454.74	30.75	30.75	30.75
359.48	-620.92	458.51	30.75	30.75	30.75
359.48	-627.45	465.55	32.75	32.75	32.75
359.48	-630.72	468.63	32.75	32.75	32.75
359.48	-633.99	472.04	33.5	33.5	33.5
359.48	-637.25	475.52	33.25	33.25	33.25
359.48	-640.52	479.01	32.75	32.75	32.75
359.48	-647.06	486.39	33	33	33
359.48	-653.59	492.29	33.25	33.25	33.25
359.48	-656.86	495.22	32.75	32.75	32.75
359.48	-660.13	498.35	32.5	32.5	32.5
359.48	-663.4	501.35	32	32	32
359.48	-666.67	504.34	32.25	32.25	32.25
359.48	-669.93	507.34	32.75	32.75	32.75
359.48	-673.2	510.45	34.25	34.25	34.25
359.48	-676.47	513.1	34.5	34.5	34.5
359.48	-679.74	515.75	33.5	33.5	33.5
359.48	-683.01	518.35	33	33	33
359.48	-686.27	520.17	34.25	34.25	34.25
359.48	-689.54	520.61	34.5	34.5	34.5
359.48	-692.81	520.09	35	35	35
359.48	-696.08	520.3	35	35	35
359.48	-699.35	521.2	35	35	35
359.48	-702.61	522.66	35.5	35.5	35.5
359.48	-705.88	525.07	36	36	36
359.48	-709.15	528.22	36.5	36.5	36.5
359.48	-712.42	531.25	36	36	36
359.48	-715.69	533.74	35.25	35.25	35.25
359.48	-718.95	535.95	37	37	37
359.48	-722.22	538.09	38.5	38.5	38.5
359.48	-725.49	540.11	38.75	38.75	38.75
359.48	-728.76	541.97	38.75	38.75	38.75
359.48	-732.03	543.7	36.75	36.75	36.75
359.48	-735.29	545.3	38	38	38
359.48	-738.56	546.92	38.25	38.25	38.25
359.48	-741.83	548.52	37.75	37.75	37.75
359.48	-745.1	550.38	35.5	35.5	35.5
359.48	-748.37	552.58	33.25	33.25	33.25
359.48	-751.63	553.64	30.75	30.75	30.75
359.48	-754.9	553.62	28.5	28.5	28.5
359.48	-758.17	553.62	33.25	33.25	33.25
359.48	-761.44	553.63	48.25	48.25	48.25
359.48	-764.71	553.69	68.75	68.75	68.75
359.48	-767.97	553.79	90.75	90.75	90.75
359.48	-771.24	553.88	99.25	99.25	99.25
359.48	-774.51	553.82	103.75	103.75	103.75
359.48	-777.78	553.63	105.25	105.25	105.25
359.48	-781.05	553.42	105.25	105.25	105.25
359.48	-784.31	553.24	105.5	105.5	105.5
359.48	-787.58	553.05	106	106	106
359.48	-790.85	552.83	106	106	106
359.48	-794.12	552.55	106	106	106
359.48	-797.39	552.17	106.25	106.25	106.25
359.48	-800.65	551.78	106	106	106
359.48	-803.92	551.46	106.75	106.75	106.75
359.48	-807.19	551.18	105.5	105.5	105.5
359.48	-813.73	550.65	104.5	104.5	104.5
359.48	-816.99	550.39	103.75	103.75	103.75
359.48	-820.26	550.04	103.75	103.75	103.75
359.48	-823.53	549.6	103.5	103.5	103.5
359.48	-830.07	548.74	104.25	104.25	104.25
359.48	-833.33	548.36	105.5	105.5	105.5
359.48	-836.6	548.19	105.5	105.5	105.5
362.75	-3.268	286.83	107.5	107.5	107.5
362.75	-9.8039	286.57	107.25	107.25	107.25
362.75	-13.072	286.27	107	107	107
362.75	-16.34	285.95	107.5	107.5	107.5
362.75	-19.608	285.8	106.75	106.75	106.75
362.75	-22.876	285.72	107	107	107
362.75	-29.412	285.61	107	107	107
362.75	-32.68	285.6	107.5	107.5	107.5
362.75	-35.948	285.6	107.75	107.75	107.75
362.75	-39.216	285.6	107.5	107.5	107.5
362.75	-45.752	285.5	108.25	108.25	108.25
362.75	-49.02	285.39	108.25	108.25	108.25
362.75	-52.288	285.33	107.5	107.5	107.5
362.75	-58.824	285.44	108.25	108.25	108.25
362.75	-62.092	285.56	109.5	109.5	109.5
362.75	-65.359	285.79	108.75	108.75	108.75
362.75	-68.627	286.05	109	109	109
362.75	-71.895	286.28	109.25	109.25	109.25
362.75	-78.431	286.9	110.25	110.25	110.25
362.75	-84.967	287.52	111	111	111
362.75	-88.235	287.9	110.25	110.25	110.25
362.75	-91.503	288.28	110.25	110.25	110.25
362.75	-94.771	288.68	111.25	111.25	111.25
362.75	-98.039	289.13	110.5	110.5	110.5
362.75	-101.31	289.62	111.5	111.5	111.5
362.75	-104.58	290.09	109.75	109.75	109.75
362.75	-107.84	290.52	110.75	110.75	110.75
362.75	-111.11	290.94	110.25	110.25	110.25
362.75	-114.38	291.37	110.5	110.5	110.5
362.75	-117.65	291.77	111	111	111
362.75	-120.92	292.17	111	111	111
362.75	-124.18	292.57	108.75	108.75	108.75
362.75	-127.45	293	108.25	108.25	108.25
362.75	-130.72	293.43	103.5	103.5	103.5
362.75	-133.99	293.74	95.5	95.5	95.5
362.75	-137.25	293.9	76.75	76.75	76.75
362.75	-140.52	293.81	54.5	54.5	54.5
362.75	-143.79	292.67	37	37	37
362.75	-147.06	288.86	36.75	36.75	36.75
362.75	-150.33	285.47	38.5	38.5	38.5
362.75	-153.59	284	38.25	38.25	38.25
362.75	-156.86	281.5	38.5	38.5	38.5
362.75	-160.13	276.24	38.75	38.75	38.75
362.75	-163.4	272.71	38.5	38.5	38.5
362.75	-166.67	273.53	39.5	39.5	39.5
362.75	-169.93	275.16	40.5	40.5	40.5
362.75	-173.2	277.28	41	41	41
362.75	-176.47	280.38	40	40	40
362.75	-179.74	279.17	38.25	38.25	38.25
362.75	-183.01	273.69	38.25	38.25	38.25
362.75	-186.27	269.88	38.25	38.25	38.25
362.75	-189.54	266.65	38.25	38.25	38.25
362.75	-192.81	262.69	39	39	39
362.75	-196.08	261.46	39.25	39.25	39.25
362.75	-199.35	262.22	38.75	38.75	38.75
362.75	-202.61	261.14	37.5	37.5	37.5
362.75	-205.88	259.84	37	37	37
362.75	-209.15	258.83	38.25	38.25	38.25
362.75	-212.42	256.34	39.25	39.25	39.25
362.75	-215.69	252.41	38.75	38.75	38.75
362.75	-218.95	248.28	39	39	39
362.75	-222.22	245.02	39.25	39.25	39.25
362.75	-225.49	242.86	37.25	37.25	37.25
362.75	-228.76	241.66	35.25	35.25	35.25
362.75	-232.03	241.21	36.25	36.25	36.25
362.75	-235.29	240.94	38.75	38.75	38.75
362.75	-238.56	241.04	41.25	41.25	41.25
362.75	-241.83	240.65	41.5	41.5	41.5
362.75	-245.1	239.4	41.5	41.5	41.5
362.75	-248.37	238.38	40.5	40.5	40.5
362.75	-251.63	239.67	39.75	39.75	39.75
362.75	-254.9	242.55	40.5	40.5	40.5
362.75	-258.17	245.36	41.5	41.5	41.5
362.75	-261.44	245.45	41.25	41.25	41.25
362.75	-264.71	242.89	41.75	41.75	41.75
362.75	-267.97	241.78	40	40	40
362.75	-271.24	242	38.75	38.75	38.75
362.75	-274.51	242.77	39	39	39
362.75	-277.78	243.79	38.25	38.25	38.25
362.75	-281.05	244.36	37.5	37.5	37.5
362.75	-284.31	244.46	37.25	37.25	37.25
362.75	-287.58	244.33	36.5	36.5	36.5
362.75	-290.85	242.28	35.5	35.5	35.5
362.75	-294.12	241.59	33.75	33.75	33.75
362.75	-297.39	241.12	34.5	34.5	34.5
362.75	-300.65	239.53	34.25	34.25	34.25
362.75	-303.92	240.32	33.75	33.75	33.75
362.75	-307.19	241.46	33.75	33.75	33.75
362.75	-310.46	242.21	32.75	32.75	32.75
362.75	-313.73	243.41	29.75	29.75	29.75
362.75	-316.99	244.6	28.75	28.75	28.75
362.75	-320.26	245.21	28.75	28.75	28.75
362.75	-323.53	245.34	28.5	28.5	28.5
362.75	-326.8	245.86	26.75	26.75	26.75
362.75	-333.33	250.63	17	17	17
362.75	-336.6	253.76	16.5	16.5	16.5
362.75	-339.87	256.7	31.25	31.25	31.25
362.75	-343.14	259.49	38.5	38.5	38.5
362.75	-346.41	262.23	38.5	38.5	38.5
362.75	-349.67	265.02	29.5	29.5	29.5
362.75	-352.94	268.28	29.25	29.25	29.25
362.75	-356.21	272.49	30.75	30.75	30.75
362.75	-359.48	277.2	30.5	30.5	30.5
362.75	-362.75	281.87	30.5	30.5	30.5
362.75	-366.01	286.55	31.25	31.25	31.25
362.75	-369.28	291.25	32.75	32.75	32.75
362.75	-372.55	295.92	33	33	33
362.75	-375.82	300.59	33.75	33.75	33.75
362.75	-379.08	305.23	33.25	33.25	33.25
362.75	-382.35	309.81	33.5	33.5	33.5
362.75	-385.62	314.33	34.25	34.25	34.25
362.75	-388.89	318.78	34.75	34.75	34.75
362.75	-392.16	323.17	36.5	36.5	36.5
362.75	-395.42	327.84	36.75	36.75	36.75
362.75	-398.69	332.73	36.75	36.75	36.75
362.75	-401.96	337.53	37	37	37
362.75	-405.23	342.3	36	36	36
362.75	-408.5	347.03	35.5	35.5	35.5
362.75	-411.76	351.52	36.25	36.25	36.25
362.75	-415.03	356.12	36.5	36.5	36.5
362.75	-418.3	360.8	36.25	36.25	36.25
362.75	-421.57	365.25	36.25	36.25	36.25
362.75	-424.84	369.65	36	36	36
362.75	-428.1	373.95	36.75	36.75	36.75
362.75	-431.37	378.15	37.75	37.75	37.75
362.75	-434.64	382.24	38.5	38.5	38.5
362.75	-437.91	386.3	38	38	38
362.75	-441.18	390.31	37	37	37
362.75	-444.44	394.26	37	37	37
362.75	-447.71	398.38	37	37	37
362.75	-450.98	402.81	37	37	37
362.75	-454.25	407.83	37	37	37
362.75	-457.52	413.5	36.5	36.5	36.5
362.75	-460.78	419.21	35.5	35.5	35.5
362.75	-464.05	424.76	34.75	34.75	34.75
362.75	-467.32	430.27	35	35	35
362.75	-470.59	435.68	35.25	35.25	35.25
362.75	-473.86	440.83	35	35	35
362.75	-477.12	446.44	35.75	35.75	35.75
362.75	-480.39	451.69	35.5	35.5	35.5
362.75	-483.66	455.77	34.75	34.75	34.75
362.75	-486.93	459.35	35.5	35.5	35.5
362.75	-490.2	460.47	36	36	36
362.75	-493.46	456.95	36.75	36.75	36.75
362.75	-496.73	453.17	36.5	36.5	36.5
362.75	-500	449.03	36.25	36.25	36.25
362.75	-503.27	448.83	36.25	36.25	36.25
362.75	-506.54	454.66	37.75	37.75	37.75
362.75	-509.8	459.79	38	38	38
362.75	-513.07	464.38	38.5	38.5	38.5
362.75	-516.34	467.86	37	37	37
362.75	-519.61	466.11	36	36	36
362.75	-522.88	460.39	34	34	34
362.75	-526.14	455.69	34.25	34.25	34.25
362.75	-529.41	452.31	33.25	33.25	33.25
362.75	-532.68	450.85	32.75	32.75	32.75
362.75	-535.95	451.45	41.25	41.25	41.25
362.75	-539.22	453	52	52	52
362.75	-542.48	454.56	52.5	52.5	52.5
362.75	-545.75	455.94	39.5	39.5	39.5
362.75	-549.02	456.78	25.5	25.5	25.5
362.75	-552.29	457.07	22.75	22.75	22.75
362.75	-555.56	457.15	22.75	22.75	22.75
362.75	-558.82	457.64	25.25	25.25	25.25
362.75	-562.09	458.66	50.75	50.75	50.75
362.75	-565.36	459.74	53.25	53.25	53.25
362.75	-568.63	460.62	54.75	54.75	54.75
362.75	-571.9	461.05	45	45	45
362.75	-575.16	459.59	34.25	34.25	34.25
362.75	-578.43	455.56	34	34	34
362.75	-581.7	449.03	34.5	34.5	34.5
362.75	-584.97	447.07	34.25	34.25	34.25
362.75	-591.5	446.94	34.5	34.5	34.5
362.75	-594.77	443.74	35.75	35.75	35.75
362.75	-598.04	445.52	36.5	36.5	36.5
362.75	-601.31	444.86	35.5	35.5	35.5
362.75	-604.58	442.49	34.25	34.25	34.25
362.75	-607.84	443.61	34.5	34.5	34.5
362.75	-611.11	447.5	34	34	34
362.75	-614.38	451.43	33.5	33.5	33.5
362.75	-617.65	455.23	34	34	34
362.75	-620.92	458.84	34.25	34.25	34.25
362.75	-624.18	462.72	34.5	34.5	34.5
362.75	-627.45	466.07	33.25	33.25	33.25
362.75	-630.72	469.14	33.75	33.75	33.75
362.75	-633.99	472.56	35	35	35
362.75	-637.25	476.21	34.75	34.75	34.75
362.75	-640.52	480.03	34.5	34.5	34.5
362.75	-643.79	483.8	34.5	34.5	34.5
362.75	-647.06	487.54	35	35	35
362.75	-650.33	490.84	36	36	36
362.75	-653.59	493.61	35.25	35.25	35.25
362.75	-656.86	496.48	34.25	34.25	34.25
362.75	-660.13	499.48	34.5	34.5	34.5
362.75	-663.4	502.42	34	34	34
362.75	-666.67	505.49	33.25	33.25	33.25
362.75	-669.93	508.44	34	34	34
362.75	-673.2	511.1	34.25	34.25	34.25
362.75	-676.47	513.54	34	34	34
362.75	-679.74	515.94	33.5	33.5	33.5
362.75	-683.01	518.17	33.5	33.5	33.5
362.75	-686.27	520.11	32.75	32.75	32.75
362.75	-689.54	521.4	34	34	34
362.75	-692.81	522.1	33.75	33.75	33.75
362.75	-696.08	522.97	33.25	33.25	33.25
362.75	-699.35	524.16	33.75	33.75	33.75
362.75	-702.61	525.8	34.25	34.25	34.25
362.75	-705.88	527.92	34.75	34.75	34.75
362.75	-709.15	530.95	34.25	34.25	34.25
362.75	-712.42	534.01	34.75	34.75	34.75
362.75	-715.69	536.32	34	34	34
362.75	-718.95	538.55	34.25	34.25	34.25
362.75	-722.22	540.71	35.5	35.5	35.5
362.75	-725.49	542.77	36.5	36.5	36.5
362.75	-728.76	544.69	36.75	36.75	36.75
362.75	-732.03	546.5	37.5	37.5	37.5
362.75	-735.29	548.27	37.5	37.5	37.5
362.75	-738.56	550.02	37	37	37
362.75	-741.83	551.77	36	36	36
362.75	-745.1	554.2	35.75	35.75	35.75
362.75	-748.37	556.4	34.75	34.75	34.75
362.75	-751.63	557.24	34.75	34.75	34.75
362.75	-754.9	557.46	32.5	32.5	32.5
362.75	-758.17	557.49	37	37	37
362.75	-761.44	557.48	52.75	52.75	52.75
362.75	-764.71	557.5	72	72	72
362.75	-767.97	557.53	92.25	92.25	92.25
362.75	-771.24	557.54	101.5	101.5	101.5
362.75	-774.51	557.43	104.5	104.5	104.5
362.75	-781.05	556.94	105.5	105.5	105.5
362.75	-787.58	556.6	106.75	106.75	106.75
362.75	-794.12	556	107.25	107.25	107.25
362.75	-797.39	555.59	106.5	106.5	106.5
362.75	-800.65	555.16	107	107	107
362.75	-803.92	554.79	106.25	106.25	106.25
362.75	-807.19	554.49	106.5	106.5	106.5
362.75	-810.46	554.18	104.5	104.5	104.5
362.75	-820.26	553.28	104	104	104
362.75	-823.53	552.86	104	104	104
362.75	-826.8	552.43	105.25	105.25	105.25
362.75	-833.33	551.63	105	105	105
362.75	-836.6	551.43	104.5	104.5	104.5
366.01	-6.5359	285.81	108.75	108.75	108.75
366.01	-9.8039	285.64	107.75	107.75	107.75
366.01	-22.876	284.8	107.5	107.5	107.5
366.01	-26.144	284.74	107	107	107
366.01	-29.412	284.7	107.5	107.5	107.5
366.01	-32.68	284.68	108.25	108.25	108.25
